6.964691855978616397e-01 2.861393349503794648e-01 2.268514535642031094e-01 5.513147690828912317e-01 7.194689697855630728e-01 4.231064601244609591e-01 9.807641983846154821e-01 6.848297385848632901e-01 4.809319014843609352e-01 3.921175181941505272e-01 3.431780161508694027e-01 7.290497073840416231e-01 4.385722446796244123e-01 5.967789660956834830e-02 3.980442553304314179e-01 7.379954057320357030e-01 1.824917304534999785e-01 1.754517561474925325e-01 5.315513738418383705e-01 5.318275870968660612e-01 6.344009585513210592e-01 8.494317940777895704e-01 7.244553248606352414e-01 6.110235106775828706e-01 7.224433825702215595e-01 3.229589138531782089e-01 3.617886556223141037e-01 2.282632308789556141e-01 2.937140463888293640e-01 6.309761238544877582e-01 9.210493994507518156e-02 4.337011726795282351e-01 4.308627633296437942e-01 4.936850976503062149e-01 4.258302902958279734e-01 3.122612229724652799e-01 4.263513069628082075e-01 8.933891631171347880e-01 9.441600182038796252e-01 5.018366758843365583e-01
6.239529517921111879e-01 1.316391527449514456e+02 1.445422618329995146e+02 1.168278847496527959e+02 1.415049229755945532e+02 5.646506904200536070e+01 1.362909742727537150e+02 1.145861218960767758e+02 9.917630903644574403e+01 1.384905023737785541e+02 4.661210009152254230e+01 1.394399114092593095e+02 1.153779592764419419e+02 1.150363978938021603e+02 1.382711816261281115e+02 2.854859974276148193e+01 1.317948696204976500e+02 1.416953973619839928e+02 1.154109396530415239e+02 1.123133630586080471e+02 6.527975126993808885e+01 1.099960227150135381e+02 6.070443928239581766e+01 1.120682298602443865e+02 1.134809731540343876e+02 8.812743846257335179e+01 1.136534147080551520e+02 1.364464054248654463e+02 2.956693873246911863e+01 1.341460851262734479e+02 5.635283762881499570e+01 1.409979548316605076e+02 1.165869345460317561e+02 1.406979668864292705e+02 5.559425937323884881e+01 1.407392078244170648e+02 1.167036776055328033e+02 1.435907879333669825e+02 1.295737760078557983e+02 6.955295287709108987e-01
3.187664263818763555e-01 1.426057485468430457e+02 2.615114664395213708e+02 2.618906134571206508e+02 2.594238502978385554e+02 1.577970694124377076e+02 1.466788137833319183e+02 2.548961500046403899e+02 2.172090902211506602e+02 2.309426531199037811e+02 9.619445562966038210e+01 2.289052177260400072e+02 2.597742933805959638e+02 2.603833414733252880e+02 2.272516443339086436e+02 1.629786707809056452e+02 6.664084617643804620e+01 2.033379419938749209e+02 2.592662636056934389e+02 2.547341816640863783e+02 1.383714018972532926e+02 2.461788241857955484e+02 1.283628087758740435e+02 2.538726392899242796e+02 2.599929701532063291e+02 1.922896072388106745e+02 2.502512914634121444e+02 1.942147553108445379e+02 6.131097852904366619e+01 1.952698676760615513e+02 1.176057133126931973e+02 2.551217648130690065e+02 2.632700419531677767e+02 2.489766000162328794e+02 1.195548112049093135e+02 2.525830911453211627e+02 2.633098335717381246e+02 2.312343706753873391e+02 9.140046477146719894e+01 9.883454192828200480e-01
9.053415756616098875e-01 7.432819330787425827e+01 1.694302777522216275e+02 3.105805491242886092e+02 3.613968866817234016e+02 3.040205464709979424e+02 2.181185698205808023e+02 3.454446721034090615e+02 3.589030893955032298e+02 2.615757802955737930e+02 1.830854201964068864e+02 1.759578750035019539e+02 3.166990458232928063e+02 3.379287904905547180e+02 1.992207780037973066e+02 9.987169821381519341e+01 2.015562383576563548e+02 1.978758109373206366e+02 3.365357626001649578e+02 3.392197377388211521e+02 2.176049175848729931e+02 3.185254240294422630e+02 2.043031825566939688e+02 3.325532769190668319e+02 3.858517287480675577e+02 3.290820326846884996e+02 2.419229162077383251e+02 1.048933911276089646e+02 2.032654148920066177e+02 2.627090915280927561e+02 1.823048451775985086e+02 3.209495704907467939e+02 3.603155335351410713e+02 2.248240108656768825e+02 2.338592557691168849e+02 2.862485277315283270e+02 3.807754365918816006e+02 2.503024872903668836e+02 1.415888835361978977e+02 4.403278766654090681e-01
4.382143843772247083e-01 1.427022157893604799e+02 2.727101658175019452e+02 3.319330367739955818e+02 4.633378072371463077e+02 4.208088951135120510e+02 3.113121634734840200e+02 3.833055001997990985e+02 4.631092883524160015e+02 3.928157828913538765e+02 2.989506012302231852e+02 2.371028464635682553e+02 3.765790392888143288e+02 3.952713587563956139e+02 2.686899278008513079e+02 1.250758463329665489e+02 2.611625948137318005e+02 3.362751406806473824e+02 4.027632284284117645e+02 4.190303235811879290e+02 3.082458177377578750e+02 3.405795477200380788e+02 3.213617238673810448e+02 4.044693264283991425e+02 3.878077426318202470e+02 2.876287143349335906e+02 1.481485936165541091e+02 2.409086087518934676e+02 3.093757568221023462e+02 3.759557639357838639e+02 2.578877996532128805e+02 3.871458136426615511e+02 4.260060004405738141e+02 3.174781311355529851e+02 3.817146787535671137e+02 4.230097969218703611e+02 3.590629358069112982e+02 2.146534984448165062e+02 9.789332574670275733e+01 1.217543554730536881e-01
5.426359257885059462e-01 1.165292036724314215e+02 2.613981251660346743e+02 3.428733276491552715e+02 4.145944818544730310e+02 5.019776559948919612e+02 4.586316052013729063e+02 5.131885804557914526e+02 5.769496531442379137e+02 5.077569168232711263e+02 4.338944023777415850e+02 3.097283905817880623e+02 4.324762671529323370e+02 3.935938704504503676e+02 2.918441163681010266e+02 1.536278204178466353e+02 1.901889565727466334e+02 3.322183145627449221e+02 4.557864459717235377e+02 5.053641740659717811e+02 4.269244540976285407e+02 4.551523818019877581e+02 4.655722138647702764e+02 4.491879950970833306e+02 3.087791195502579171e+02 1.914151257165046616e+02 2.823691352468560467e+02 2.432772435653775176e+02 3.808242130513434063e+02 4.521886126839445410e+02 3.508242026233605770e+02 4.648638973736104845e+02 5.198723929481518553e+02 4.688521790013742816e+02 5.105575541199569329e+02 4.511424692396449814e+02 3.093596291062522141e+02 1.901876262896586525e+02 8.779582552753350910e+01 6.263093617098562937e-01
5.545408406904539511e-03 1.374173691620497948e+02 2.091103122962418865e+02 2.048698623272035775e+02 3.505818066401079136e+02 4.564782666327383822e+02 4.971226809461730340e+02 5.200240658928971698e+02 5.794818249890744255e+02 5.697892838842502670e+02 4.302035872181342597e+02 4.232195335283355462e+02 4.489548700519089266e+02 3.109030019402550238e+02 1.958183792565378383e+02 2.934353412137674013e+02 3.300182573587246111e+02 2.618264340449208021e+02 4.054576975920983273e+02 5.338247224709938337e+02 5.699191720279766287e+02 5.941779350463156106e+02 5.459749066180949058e+02 4.693841671280570722e+02 3.612636349388724284e+02 2.247713617060520619e+02 3.603757013389892450e+02 3.856887223331465862e+02 3.567415024992425288e+02 4.957452952157783557e+02 4.688858738246308917e+02 5.565826339270270182e+02 6.127782016365084701e+02 5.840246652168450510e+02 5.125772513982600458e+02 4.292665224240903967e+02 3.601786999945591106e+02 2.570926833184917655e+02 1.139396938667445909e+02 2.619660525084377412e-02
8.875934604677748752e-01 3.512514337163338496e+01 7.232018429958024797e+01 2.104316331907747042e+02 2.992705931076167190e+02 3.154011724480515682e+02 3.574663853556465369e+02 3.791464454536663879e+02 5.263952420928901574e+02 6.231394585971601146e+02 5.466193449251397851e+02 5.612528393667685123e+02 4.302229173627719092e+02 3.117057944400788756e+02 2.235429560522985071e+02 3.655280919537250384e+02 4.530859389408179823e+02 4.052475156659424442e+02 3.393285157335977829e+02 4.836642596013157913e+02 6.162056425544431022e+02 5.983902130662474974e+02 4.550076357802839766e+02 3.505207144727360173e+02 2.741034121354198874e+02 3.574512520596341005e+02 3.688506018812330467e+02 5.036342646545971320e+02 4.586070563272834875e+02 5.642913243234252150e+02 6.111156250636369123e+02 6.178085774538683381e+02 4.825665239381854121e+02 4.506047515692140450e+02 4.476408199145011508e+02 3.073252747982923552e+02 2.239254818500310193e+02 2.189816301568455117e+02 1.427089405843109091e+02 5.005614208491011574e-01
3.532210966248339190e-03 1.370628788988495046e+02 2.047583933915047965e+02 1.230506316148365329e+02 1.601351329354953918e+02 2.016836958229263246e+02 2.470228634077651577e+02 3.887210625569881017e+02 5.199937005386053670e+02 6.231213632808812690e+02 6.824545456939191581e+02 6.310277728196385851e+02 5.142597408078004264e+02 3.949043093342303905e+02 2.552024431233881501e+02 3.936358386069439916e+02 5.010547638027997550e+02 5.326748819813566342e+02 4.835750241251786292e+02 4.266071578718036790e+02 5.698113173162588510e+02 6.501709800861307258e+02 5.559755213050892735e+02 4.179289082873161192e+02 4.124984599352946475e+02 3.260737604063434674e+02 4.644276003169307501e+02 5.679658325359043829e+02 6.044115380029974176e+02 6.604070211379179227e+02 6.729278813042653837e+02 5.961545291854748712e+02 4.523999551424905121e+02 3.376817240586759681e+02 3.735530195142285947e+02 3.044850084050335681e+02 1.609876353946108622e+02 8.253797235567260770e+01 1.330614638010849831e+02 3.641874497564469015e-01
5.645703425961435817e-01 1.144128912812351473e+02 2.534831569072886168e+02 2.631329141172805066e+02 2.126942698642666016e+02 3.362556077181120600e+02 3.833733387349118402e+02 3.206411735204624165e+02 4.189282073757202056e+02 5.667287103264742427e+02 6.940014519076454462e+02 6.230821049572496122e+02 4.756305306821949443e+02 3.727841724586656937e+02 3.113011784716701413e+02 3.066130670919814634e+02 4.484996002638749246e+02 5.568863870547392025e+02 6.158356838371297499e+02 5.406748594418689891e+02 5.382336796219016151e+02 6.764505850136815752e+02 6.259853941701735494e+02 5.573227554320428681e+02 4.997971775057349646e+02 3.658433825490011486e+02 4.411934192763921487e+02 5.439627528167479795e+02 6.830944431251100468e+02 6.791359272826592814e+02 5.415007339508376845e+02 5.349552403797665647e+02 4.786738834678642434e+02 3.746791017700487032e+02 2.372781516177911669e+02 2.660005650888588775e+02 1.313087655736373449e+02 1.717293470514846945e+02 3.533306795209664841e+01 8.457525073029277252e-01
4.562705990415628632e-01 9.823049990950592303e+01 2.173872102321788873e+02 3.538152165393142923e+02 3.262135288771671640e+02 3.196043789334738108e+02 4.558808593536689955e+02 4.623260818387004747e+02 4.029681822900856787e+02 5.018415526634876755e+02 6.459142791688448142e+02 6.777700432671031194e+02 5.816575332533086566e+02 5.085005033650762698e+02 3.807535424522556013e+02 4.417013127493957541e+02 3.585867889223084148e+02 5.034012298756192649e+02 6.356187475541547656e+02 6.786784835956580082e+02 6.393883616099606115e+02 7.379669651859971964e+02 6.748538060630535256e+02 5.300009791420168312e+02 4.291095664776580065e+02 4.525182291105632544e+02 5.299656965560330946e+02 6.496525774560157060e+02 7.379602173900835851e+02 6.535361682949403530e+02 5.081132905391452255e+02 3.957965955787364578e+02 3.431951159231413158e+02 2.947672511821634203e+02 3.186478340569813668e+02 1.829920507428422525e+02 2.687853439614231661e+02 2.371940053931870978e+02 1.390942764901328985e+02 4.416973880462206070e-01
4.235180489765929535e-01 1.122542616218803175e+02 2.562496633862416502e+02 3.758919700774521857e+02 4.612149706677220138e+02 4.341767334114922505e+02 4.659776968368627763e+02 5.928928791932008835e+02 5.182710162542852004e+02 5.143189680532907460e+02 6.156255608345989003e+02 7.491648050259361753e+02 6.394239720832994180e+02 4.938558104695988504e+02 4.951281459600191397e+02 5.335421458436902640e+02 3.982470288582184708e+02 4.402449672119876141e+02 5.558243577650204088e+02 6.985503798918939538e+02 7.791766020539291731e+02 8.307212077462751267e+02 7.318639694415730901e+02 6.160210136489988599e+02 4.776000647486155231e+02 5.650609736421898788e+02 6.621572262197097416e+02 7.375636288537669998e+02 7.386348433047985509e+02 5.990475581462989112e+02 4.847296381089586816e+02 5.335434603746850826e+02 4.519936168182158553e+02 3.764051660252998204e+02 3.822595152651572334e+02 2.742618857616876653e+02 3.676704149578254714e+02 2.601218464394812031e+02 1.145659293345875369e+02 2.300899574982908646e-01
8.983186707236401336e-02 8.162786036958154057e+01 1.752055775346427140e+02 2.939039016288087964e+02 4.404312177957407926e+02 5.661299533717817667e+02 6.048428779996239655e+02 6.655604847127016228e+02 6.586348626575829712e+02 6.586446146463357536e+02 7.184200316357139400e+02 8.039135925391140063e+02 7.041534371062376749e+02 5.957088819280011194e+02 6.363614403747641290e+02 5.827156240190839753e+02 4.438697465509961262e+02 5.736502657041737621e+02 5.421226385009545083e+02 6.569689403628217406e+02 7.993715361153680306e+02 8.191774543981671286e+02 6.779278854350832262e+02 5.630292797972502967e+02 5.579007727223330448e+02 6.420244643202735233e+02 7.715215240874118763e+02 8.326395853699310692e+02 6.977782425676638240e+02 5.963367057065034942e+02 5.986266381799106284e+02 6.492089940884171710e+02 5.226817878237065997e+02 5.192608462418298814e+02 4.377852735753468210e+02 4.126169157929467133e+02 3.618048333180893223e+02 2.187073180541514148e+02 9.931269535154628159e+01 4.777780483752103180e-01
6.171860885532679530e-01 1.391440095100898588e+02 2.491156572677504641e+02 3.173149098817822278e+02 3.914965406472667269e+02 4.745182135293970873e+02 5.640394638497890583e+02 6.634166210609278096e+02 6.272183969135935513e+02 6.804652563255650648e+02 7.099575965398635162e+02 7.430144370447293340e+02 7.858415642494255735e+02 7.391512586612175255e+02 7.241426772261012275e+02 5.854522150021016387e+02 4.920960796848156633e+02 6.273428589860459397e+02 6.796451185582700418e+02 6.742561530115109463e+02 8.159930950008671289e+02 8.177564154650021919e+02 6.745467225618723432e+02 6.587838915401374607e+02 6.602576824978021932e+02 7.657845717754447605e+02 8.452791146955704562e+02 8.864422367099434723e+02 7.956288266267306426e+02 7.365739459214753424e+02 7.341383655079494019e+02 7.169134255444756718e+02 6.584001903611582520e+02 6.274606296705775321e+02 5.152940765409180131e+02 4.140283726048346011e+02 3.332627465858774372e+02 2.566400607000853711e+02 1.402446809018224485e+02 2.486237675113557311e-01
6.474325130087322799e-01 5.574303154008326544e+01 1.183679495878612329e+02 1.863555742306284060e+02 2.654881882590731266e+02 3.559279731977701431e+02 4.680962491097279212e+02 5.523686185300254010e+02 4.798934221662019581e+02 5.798631649338482248e+02 5.665004214099607225e+02 5.967815650277146915e+02 6.897533783085048071e+02 7.727043834375291453e+02 7.810535675537937550e+02 6.948299008226065325e+02 5.797919341511878883e+02 5.736926282150637917e+02 7.125890520414682214e+02 8.094111354536343015e+02 8.768907818050221294e+02 8.792324324028294313e+02 7.751016349571699493e+02 7.752236837768390387e+02 8.048013959772047201e+02 8.547624999180219447e+02 8.360965518620378134e+02 7.783757392269538968e+02 7.169176955929167434e+02 6.921140654311134313e+02 6.334911549329486888e+02 6.075790301075249999e+02 5.475440347253082791e+02 5.178408825239058615e+02 4.597496778685987806e+02 3.141503062788035550e+02 2.100174249558025679e+02 1.298737138427412390e+02 5.989880068792011514e+01 3.191798760575137450e-02
7.013598010182326981e-01 1.418623809154003368e+02 2.500886637606481031e+02 3.121564572512124869e+02 3.748303246224548388e+02 3.881791868464745789e+02 3.962627851618821637e+02 4.115210549543634784e+02 3.750628877085877093e+02 4.906012897004029583e+02 4.489907631334226608e+02 4.792616154801848438e+02 5.737755552112269015e+02 6.701389891436077733e+02 7.466503547461824155e+02 7.704491554371431903e+02 6.930985464246749643e+02 6.856394161739347055e+02 6.643880906145925564e+02 7.661944073612091870e+02 9.107880342003327314e+02 9.692455667664663679e+02 9.153330893997126623e+02 9.082220150069473448e+02 8.476350455565647053e+02 7.872963545660064710e+02 7.264382150384763008e+02 6.344550622980489152e+02 5.696184488806901527e+02 6.206549103745513776e+02 4.869302006464427564e+02 4.935625994744249851e+02 3.991794905120720500e+02 3.721659349724984054e+02 4.510146959567189242e+02 4.122689890229774505e+02 3.331230461441977582e+02 2.564739261865108233e+02 1.401478107814094756e+02 1.960094657455838663e-01
9.818399862146698354e-02 1.377154656441059899e+02 1.962179556524675661e+02 2.255416086401348821e+02 2.526818101003889865e+02 2.475089811138347500e+02 2.502788860009339373e+02 3.288660490199910100e+02 2.907216409880522292e+02 3.897258474840621716e+02 3.497329558427011875e+02 4.675490568800499318e+02 4.596484779127342222e+02 5.412463877246420907e+02 6.419578135850687204e+02 7.398762295165422529e+02 8.217716575252479743e+02 8.295502436845621332e+02 7.485572747027799778e+02 8.712937347801486112e+02 9.662497934261939463e+02 9.412320354562384637e+02 8.560739201778602592e+02 7.947898721700219085e+02 7.316573236275648924e+02 6.464881464837582143e+02 5.804658563219314829e+02 5.769219056296742565e+02 4.675016551424000113e+02 5.021639697429611147e+02 4.903050983661035502e+02 3.538671453834253384e+02 3.717812247173833384e+02 2.548658136000887566e+02 3.808405167744337518e+02 4.489135381811439629e+02 3.613981644193692091e+02 2.164396705453991956e+02 9.854057675024304785e+01 4.404620020878540210e-01
8.440774627504413763e-01 2.821844735072022559e+01 5.567165140805195733e+01 8.116787387216621141e+01 1.084240508708760728e+02 1.339241851952939157e+02 1.604224917786064566e+02 1.909702201486447279e+02 2.181933410489099856e+02 2.519796868598564288e+02 2.892668316041733760e+02 3.334198068538182724e+02 3.779545094754853949e+02 4.304120408083044822e+02 5.310036526061170434e+02 6.797874666525921157e+02 8.039569887088100586e+02 9.011716065196674208e+02 8.512054715643681675e+02 9.561428944614873444e+02 9.950092305657012730e+02 8.562248578651741582e+02 7.383604433506936857e+02 6.488404894086555714e+02 5.866604929785913782e+02 5.332201704050820581e+02 4.845833810254734431e+02 4.401226149359047213e+02 3.976011356704032096e+02 3.597061075632157099e+02 4.400395830967343613e+02 3.841802376196148998e+02 2.440585739222033794e+02 1.798654982431250744e+02 2.579587905062662117e+02 3.492905968011136792e+02 3.549254204983448631e+02 2.153024481239681336e+02 9.729448687862554834e+01 2.734078131945449908e-02
5.509532752332554351e-01 1.368388111914862009e+02 1.944407713651303879e+02 1.806547489779198941e+02 2.502190390789259311e+02 2.308044205764232402e+02 2.413936770164093559e+02 3.303667997863702794e+02 3.008530028822730173e+02 3.896509140758038257e+02 3.266529405760543341e+02 4.593332911517714479e+02 4.904279777174615447e+02 5.694879836831763669e+02 5.147774732226944252e+02 5.966208662264240274e+02 7.030827275373294469e+02 8.607308218307009611e+02 9.884115510375693248e+02 1.048720007528764881e+03 1.006941072647717419e+03 8.610807125008462890e+02 7.603454390520208790e+02 7.844753071501953627e+02 6.764993881870426549e+02 6.772217583866067798e+02 6.283105551495218606e+02 5.785902996461836665e+02 5.307242059708129318e+02 4.405842522485446011e+02 3.068628624571174441e+02 3.494456688678523051e+02 2.166113771139156938e+02 2.800761481928987564e+02 1.481720953871331972e+02 2.536880070873144746e+02 3.092589794657437210e+02 2.556189979838715942e+02 1.149054790182992321e+02 8.353886871465001640e-01
4.308756521307118836e-01 1.161279857977410330e+02 2.572173469757329940e+02 3.225239847176574699e+02 3.824741680524851972e+02 3.477413936989354966e+02 3.440739978203511100e+02 4.429526304874501079e+02 4.043382276635688868e+02 5.010935554196043427e+02 4.413820469426267437e+02 4.123933356494240456e+02 5.537505915297098227e+02 6.813841912492703159e+02 6.611365737193233372e+02 6.277616482416293593e+02 7.458430437860437223e+02 8.951086210406616601e+02 9.675136112096085981e+02 1.029506550991322229e+03 1.057610728318698420e+03 9.699190647773599494e+02 9.047029696639671101e+02 8.784413152877148150e+02 8.194235295759432347e+02 8.083173811660689125e+02 7.030823418412862793e+02 5.634990944017322363e+02 4.485444538571758244e+02 3.523791488870729722e+02 3.824133944905611315e+02 2.555275448752393572e+02 3.543595318126634766e+02 3.477781516247463856e+02 2.518648194386746582e+02 1.132911231450041498e+02 2.160578519343182222e+02 1.972221817700753093e+02 1.414787885184122160e+02 3.105087417947062223e-01
3.871952049195171996e-01 1.408669129290527735e+02 2.241002452587666482e+02 3.364390735567992010e+02 4.719308526916241817e+02 4.880394347447027030e+02 4.887491819671941471e+02 5.406319777022267772e+02 5.473003280281515117e+02 6.031010890632883275e+02 5.870693157630736323e+02 5.273264091661329758e+02 5.101436450756652903e+02 6.277830138034751144e+02 7.683999229685995260e+02 7.482232096012347711e+02 8.414462872494681278e+02 9.146376565239025922e+02 8.256402695485272716e+02 9.300318927522057493e+02 1.014682325883264070e+03 1.041448724923593545e+03 9.475138184929862746e+02 8.704958380546778471e+02 8.069889387391291393e+02 7.184165958699400107e+02 6.188800758305296768e+02 5.476519085926533990e+02 4.087309963516295284e+02 4.361680718751813970e+02 3.006583183581692538e+02 3.954763402635657030e+02 4.493310936196133980e+02 4.050617557088886542e+02 2.724491598888279782e+02 1.293174156334400209e+02 7.816554930182867622e+01 5.769237554732553264e+01 1.314715847819699377e+02 4.929137276185734384e-01
7.516149628649932968e-01 8.430635867092676961e+01 2.225651548654656438e+02 2.936116965303199891e+02 4.027764022114975546e+02 4.633944537361179528e+02 4.918152395144842330e+02 4.782509247076715724e+02 5.333701405310500832e+02 6.071024606342175503e+02 6.823671313693765796e+02 6.715902149933318697e+02 6.290030852295833483e+02 6.459000605836878321e+02 7.974108612448135318e+02 8.925518968579448256e+02 9.314864855051799850e+02 8.469485862749580747e+02 7.209109631089563663e+02 8.074496086668616499e+02 9.432752463496902919e+02 9.883144587487145145e+02 8.507223246898811340e+02 7.470499113517424803e+02 6.678038619959314701e+02 6.484510153457708839e+02 5.089642774740765958e+02 4.658240594564337584e+02 5.459377943080567093e+02 4.956259391825173566e+02 3.539005003254043800e+02 4.895639818492699078e+02 4.687450485103673827e+02 3.276096410652503437e+02 2.132403318206536085e+02 2.675938349812971069e+02 1.770302298894671083e+02 1.641721033466922677e+02 2.605628149885632894e+01 7.511212421236492798e-01
7.586246475558129365e-01 1.307822015264056006e+02 8.432860928191216487e+01 2.230971961375588819e+02 2.594943687843882572e+02 3.405814813690137726e+02 3.480642103149120317e+02 3.321330794578111067e+02 4.093840352111180891e+02 4.989298247900560455e+02 6.099273615728860705e+02 7.351664795044371203e+02 7.747981035130696910e+02 7.971114007209446299e+02 8.650759040395166721e+02 9.369374852887747238e+02 8.496612740017294527e+02 7.382728989392149970e+02 6.407820236178883988e+02 7.363480064481007048e+02 8.504904431249962045e+02 9.470650155378656336e+02 9.422369172936646464e+02 8.293125537221908417e+02 6.859899392893291861e+02 5.748051189781338053e+02 6.467076832904546109e+02 5.835713068542117981e+02 6.540184724391020836e+02 5.540172254913489951e+02 4.177293772875734703e+02 5.457041621042073984e+02 4.577690052657346769e+02 3.136783601651027880e+02 3.263498366878854995e+02 3.766451079437350700e+02 3.182051207089216973e+02 2.324497255577610986e+02 1.398140560556205969e+02 4.986882159956431693e-01
4.537276267000506236e-01 3.499151698911305886e+01 1.697006960221450527e+02 1.296047454372196626e+02 1.605981397945623144e+02 1.978898657745881167e+02 2.364936404753277657e+02 3.749095462881730896e+02 4.801557015962171704e+02 5.404594717883018120e+02 6.060397039336205580e+02 6.782592033911748786e+02 7.624654425413646095e+02 8.660267127006261489e+02 9.562621765237266800e+02 8.845649606747135749e+02 7.422362565316118435e+02 6.401330836411904102e+02 5.754079180698817026e+02 6.392246094026975243e+02 7.436087853570006700e+02 8.911141880878526536e+02 9.479030560217665879e+02 8.103574772353886146e+02 6.927607275376676625e+02 6.506116952185105902e+02 7.683254185009345747e+02 7.266867038153002341e+02 6.609279938565015300e+02 5.192193929158715946e+02 5.313945900990314612e+02 5.840961846166438818e+02 4.463537622537215270e+02 4.282894024375854656e+02 4.660320749747542663e+02 4.304169639071593565e+02 3.422144760186545227e+02 2.623019670627865025e+02 1.429393166541705398e+02 6.373567316294646012e-01
1.273756368390610572e-02 1.369140700182763055e+02 1.968529101522184135e+02 2.699224974103607337e+02 2.443608637673075350e+02 3.375076608809929439e+02 3.755685823432805250e+02 2.975696127099707837e+02 3.453929205894503980e+02 3.992830285194930298e+02 4.636869417728918847e+02 5.422086019609903360e+02 6.434026619810999819e+02 8.098730559681811201e+02 9.033936421476951182e+02 7.644174654523482104e+02 7.376385001803203068e+02 6.600181017874604095e+02 5.232194835566389202e+02 6.361988567204842866e+02 7.815938198844501130e+02 8.915071001485891884e+02 9.483701765652220956e+02 8.963523515836678826e+02 8.366409498865546084e+02 7.450229508252613186e+02 8.496991230838017373e+02 7.939582095587496724e+02 6.518933750248197612e+02 6.337119903966953416e+02 6.723396345970195398e+02 6.468869196173882301e+02 5.864197227348615797e+02 5.667065255082148951e+02 4.959443145533672919e+02 3.515924675084870614e+02 2.340661468328325157e+02 1.413985169367082051e+02 6.451956808425225631e+01 2.948947090182448827e-01
8.189443905104887289e-02 1.159963018211216763e+02 2.615557796283598577e+02 3.882132775785902368e+02 3.887688507632014989e+02 3.900663665941013392e+02 4.917600660345805181e+02 3.910698494042696325e+02 4.855101338852330173e+02 4.908880471065809843e+02 5.687061952564316698e+02 6.490004793977439022e+02 7.614603952630060348e+02 8.655113179770203260e+02 8.751182375865316772e+02 7.333356481336991237e+02 6.178203656467427436e+02 5.375163455619924662e+02 4.798214371882847331e+02 6.255623566026914659e+02 7.452179004226572943e+02 7.529179271617425684e+02 8.373273357975077715e+02 8.971332245427934140e+02 9.385904295626985459e+02 8.933774046622132801e+02 9.371907042235714016e+02 8.577959660334881846e+02 7.948734985479701436e+02 7.735219575206347145e+02 7.168745114204061792e+02 6.217574972677284677e+02 5.593559779114337971e+02 5.568266127433109887e+02 5.111690832352601888e+02 3.696919168324807856e+02 3.321741425403647554e+02 2.603504636821841132e+02 1.424758501033324762e+02 2.356383448612519027e-01
1.490620076684304740e-01 1.401547472107057217e+02 2.507375638717662412e+02 3.466111498312415620e+02 4.524402937276381635e+02 5.251138857126237554e+02 5.818857890892320484e+02 5.393756224189223758e+02 5.612079769746175089e+02 6.457874245151224386e+02 7.117923063059228070e+02 7.865640632776776329e+02 8.635759460267330496e+02 8.686619766194521617e+02 7.999749183408652016e+02 7.423961514570634108e+02 6.990570216683395302e+02 5.799214292599237979e+02 4.398750887864942456e+02 5.815593036792669182e+02 6.072108203791510732e+02 6.962157081425316392e+02 6.927662103764228050e+02 8.369118143118379294e+02 9.144335648729604600e+02 9.676702046478005741e+02 9.191862897854952053e+02 8.549173407762018542e+02 8.219909373325267552e+02 7.743429025707335995e+02 6.612757059956019248e+02 5.159560733278766520e+02 4.151748169310850471e+02 4.168244054894978490e+02 4.710301820764865397e+02 3.502699139420978440e+02 2.072246772330592250e+02 2.119820985698138145e+02 1.395376587722296904e+02 8.685338575255553417e-01
1.649980054209841951e-01 4.803509741677216027e+01 1.376805895150124002e+02 2.521991967426108943e+02 3.771719111670543043e+02 4.434003042012203082e+02 5.121165962811867303e+02 5.874636518974397177e+02 6.874534933717973217e+02 7.669648032438216205e+02 7.958115040986756412e+02 8.011933702383777245e+02 8.183793642187968089e+02 7.992325073600046608e+02 6.367908532117413642e+02 5.988655684749294323e+02 6.392739057694428766e+02 5.019582254650901518e+02 4.022101133880464658e+02 5.416179157321126922e+02 5.237099490007246914e+02 5.578485794177764774e+02 7.004076180608822142e+02 7.799391576897040750e+02 7.744979462713174598e+02 9.131251765598407246e+02 8.576190432895675713e+02 7.126677466357111825e+02 6.824656067601027871e+02 7.081409988320990578e+02 5.723220159641805367e+02 5.279923238723310988e+02 4.391952558337515029e+02 3.019678409117325373e+02 3.495481620843460178e+02 2.763692651902468924e+02 2.125412876478253281e+02 7.547969316712681120e+01 3.643131410973943218e+01 3.912625691057221022e-01
7.193457766547498577e-01 1.344823396521396148e+02 1.220090601412620401e+02 1.756984911163086451e+02 2.375308776840323901e+02 3.058373635207905181e+02 3.859055498145664274e+02 4.901115973149241540e+02 6.389364705700210152e+02 7.411285409446861649e+02 6.656825596010388608e+02 6.740993289629951732e+02 7.095274715197591604e+02 7.619928127877522002e+02 6.109455294077673670e+02 4.842199729943728244e+02 5.277652281666787530e+02 5.048795037307575058e+02 3.675104531968275410e+02 5.003126544038356656e+02 4.502403793029908456e+02 5.879867098489106638e+02 6.722587867086303959e+02 6.416684309135189324e+02 7.565416415540744310e+02 8.907674804649648195e+02 7.936400002364845250e+02 6.511390879954756201e+02 5.666699730991142587e+02 6.467240397029017913e+02 5.089668783530852920e+02 4.066817022441933887e+02 3.305025233334109771e+02 2.651539430794816781e+02 2.095034608974869172e+02 1.662677304392003350e+02 1.295865708249098702e+02 2.078730987990063284e+02 1.380044350673046836e+02 8.727353473901136027e-01
7.685742417824326100e-01 1.144378880783362717e+02 2.523869153134972692e+02 3.176818768143913871e+02 3.798969145348308984e+02 4.422321374566313352e+02 5.131498953884554339e+02 5.914683609925517658e+02 6.611743681174358471e+02 6.578291731308200951e+02 5.548334521384517757e+02 5.731666230518078464e+02 6.985682938193202745e+02 7.062908133681586378e+02 6.246883534921910268e+02 5.231710633983379921e+02 3.832239869361056890e+02 4.307131220968832963e+02 3.330996868330472012e+02 3.728685417254579875e+02 4.221218558155964615e+02 4.774567087908603753e+02 5.400238591196903144e+02 6.554394527605768417e+02 7.960817286447775132e+02 8.178640324562628621e+02 7.287506344665366669e+02 5.838309795949400041e+02 4.886906943361180424e+02 6.190568091459317657e+02 6.087436630434508515e+02 5.365270874416073639e+02 4.304038509489429316e+02 3.655392081254169625e+02 2.827254323655596409e+02 2.789705804270661247e+02 2.720724316733420665e+02 2.536937135939743655e+02 1.141029221762018580e+02 1.933229673577848695e-01
8.194556180481280538e-01 9.869468647255897054e+01 2.180584821833772935e+02 3.595817065692542656e+02 4.350737248159734349e+02 4.999377976642037424e+02 5.974596790063791332e+02 6.578422913893905388e+02 5.325508005359276922e+02 5.285492007269466512e+02 4.719465729309147832e+02 6.038209093785862933e+02 6.850575087548232887e+02 6.407916274473092244e+02 4.987712731631193037e+02 4.195490905589065278e+02 3.921804540157340853e+02 2.960747371733267528e+02 4.324871263211804830e+02 5.099548255502556913e+02 5.659747806784674822e+02 6.193672119886912242e+02 6.738835571094248280e+02 7.367957925516908517e+02 7.839806015393190819e+02 7.352278170640321378e+02 6.139221886977549048e+02 5.223112457136304556e+02 4.215461017586342223e+02 5.647990223436424913e+02 6.670791120274915329e+02 6.336927013693120898e+02 5.689394990965787429e+02 4.301646724057419533e+02 4.273674978687575390e+02 4.193860823792386441e+02 3.565734784977118466e+02 2.154661224419931216e+02 9.748258186888000409e+01 2.465597343990052481e-01
8.440609081355756604e-01 1.149994000381548460e+02 2.582397306106648784e+02 3.238379049316733358e+02 2.990271676358313471e+02 3.994836826172322617e+02 5.469672500585115813e+02 6.288752658511887148e+02 5.260042339775252458e+02 3.927474301170598778e+02 5.157192020147699623e+02 5.806991298838870534e+02 5.442097498184143660e+02 5.750571541344838806e+02 4.338625639993675804e+02 3.304267884813787646e+02 2.575941938265902991e+02 3.547930703464398334e+02 4.217913021009777026e+02 4.765119500505405767e+02 6.154297616746059703e+02 6.503957186531723664e+02 6.043574946485877035e+02 6.590264551220680005e+02 6.464112043990213579e+02 6.687028204967361944e+02 5.276316520269045895e+02 4.479158929715143813e+02 3.640432785740916302e+02 4.754738746141198931e+02 5.831104969342139839e+02 6.395555242263899345e+02 6.307538060494742922e+02 5.691714742788566355e+02 4.972124780347262458e+02 4.355601018521082892e+02 3.599278214688894195e+02 2.165037792813069473e+02 9.903756885710457425e+01 9.992012625846259377e-01
2.886134989702104914e-01 1.394029957103565778e+02 2.340992989860670264e+02 1.878147911380153801e+02 2.762373138939989872e+02 3.944363203524358710e+02 5.371543400093765968e+02 5.770926400733263790e+02 4.414168218859794592e+02 3.422491199634254713e+02 3.806772273505432054e+02 4.739182560368124086e+02 4.244660775911800101e+02 5.235548110675838416e+02 5.308674871290184001e+02 4.555432689160646760e+02 3.568820627750132530e+02 2.203092581517445581e+02 3.103634919352743395e+02 4.546439728232230095e+02 5.718158833241731145e+02 5.645053666286753469e+02 4.554767390888173395e+02 5.609338805310143243e+02 5.309127438114639972e+02 6.255224973789897831e+02 5.294442151322193695e+02 3.832588842935245452e+02 3.124694612276020962e+02 4.506564217393717513e+02 4.404497274072161304e+02 5.472076463692540074e+02 6.126057938478319329e+02 5.591857239389129290e+02 4.149101033550070952e+02 2.976914777425207035e+02 3.101989288751038885e+02 2.485094381384898270e+02 1.400844965522085204e+02 9.392958226326294513e-01
4.525261510276379351e-01 4.905027016126594219e+01 1.019381208034546802e+02 2.142929376022870542e+02 3.602702197139819305e+02 4.752172055539576832e+02 5.132647287327929462e+02 5.674277704400095672e+02 5.286882130574718985e+02 4.165890470357053914e+02 2.807146950329192805e+02 3.566473738780037479e+02 3.232956547315667990e+02 4.393208860114796153e+02 5.672687142702246774e+02 4.560543823857994994e+02 3.089635590662703066e+02 1.946429874675767167e+02 3.324471333313668993e+02 3.719993756424085518e+02 4.672441780706110990e+02 4.865964324139284258e+02 3.610540301574247337e+02 4.561513678919254176e+02 4.313740638815711463e+02 5.698373421201371229e+02 5.246828731971376101e+02 3.804617691301419882e+02 2.677240960757838479e+02 4.013676646816423954e+02 3.388462790272823213e+02 4.588791839460009783e+02 4.762724684932842933e+02 5.511573241447301825e+02 4.281425703681344430e+02 2.785512245645775806e+02 1.771182225976263567e+02 1.120490028320132581e+02 5.282060469036555617e+01 2.129349074892771254e-01
2.082634081457843678e-01 1.386578213142025220e+02 2.350098540200159789e+02 2.468852275704914518e+02 3.918015389240584341e+02 4.610422412402743362e+02 3.707730748358420669e+02 4.707906115658095132e+02 4.666008710336171248e+02 4.025635439073475368e+02 3.505628262406268050e+02 2.197047919452467681e+02 3.277170219106550917e+02 4.663022283240191541e+02 4.882325308549187639e+02 4.276479566915499504e+02 2.860606900450350167e+02 1.720695904966692069e+02 2.740579009747519308e+02 2.597232204366957262e+02 4.008911080004326095e+02 4.158880734178706575e+02 2.855715233664798802e+02 3.176758347837691758e+02 4.612912909001422577e+02 5.509688177854175137e+02 5.055839361450527463e+02 3.767092653747835129e+02 2.288903392691748309e+02 3.086248335163006686e+02 2.543824710008078398e+02 3.815757848702605770e+02 3.600997672998942107e+02 4.726671434272034276e+02 4.786246186074574211e+02 3.844779831499525358e+02 2.747299712946140744e+02 2.466232448717535988e+02 1.399285985009918818e+02 8.326839632564564386e-01
9.156449921115078494e-01 9.962553426705613902e+01 2.179357603657897755e+02 3.572758654920909294e+02 4.395161176807905576e+02 3.915604965444040886e+02 2.670544687111589042e+02 3.899400710424633871e+02 4.028313520890890231e+02 2.631908590281537386e+02 2.693345104441389708e+02 1.817746832418206111e+02 2.934731254921873074e+02 4.276327209835323515e+02 3.479380666599230949e+02 3.250583191884902590e+02 3.117232334468737918e+02 2.707159586085070941e+02 1.388377946644047540e+02 2.788114492443991139e+02 3.507161060194019910e+02 2.962929574544366460e+02 2.213987294009997413e+02 3.609061855963948346e+02 4.830503336426490364e+02 4.158796660992287002e+02 3.678011041808565551e+02 4.160114982285725205e+02 3.139770324489112454e+02 1.726399295481172658e+02 1.800894122222804015e+02 3.134232673083096756e+02 2.692870736668111817e+02 3.967495934688005264e+02 4.814665653058830799e+02 4.677621954103978510e+02 3.598176473960150474e+02 2.184896324787112576e+02 9.963289580710259941e+01 8.460788174782950533e-01
6.123783545936672956e-01 1.151976631955606507e+02 2.605186034335927161e+02 3.382462030411802516e+02 3.805312610493404577e+02 3.229575784124352253e+02 1.871750176367372376e+02 3.226084773718563383e+02 3.774312916470196910e+02 2.442671508652358625e+02 1.335732821436683935e+02 2.184705788652063063e+02 2.825565715741861936e+02 3.506484048197809216e+02 3.174945039136069909e+02 1.791230172177765496e+02 1.725537678129287826e+02 2.153950696127986930e+02 1.149529430640693448e+02 2.563110768446529733e+02 2.894945103893583678e+02 1.522941240624491002e+02 2.662074993436094132e+02 2.952304890298140094e+02 3.630525285210140964e+02 3.637914943696223986e+02 2.504789740146280508e+02 3.225088607037480983e+02 3.551261078645526936e+02 2.548561051627501115e+02 1.168549485883522294e+02 2.513836444392250371e+02 1.909501275725888831e+02 2.853810549583006377e+02 3.630501452230315067e+02 3.881741648027618226e+02 3.290003760622074651e+02 2.601384720228833203e+02 1.150645251552354154e+02 4.652352656152063393e-01
5.491434909663609476e-01 1.449581515730795900e+02 2.662566408829038096e+02 1.979982864250555963e+02 2.400593495441855509e+02 2.536163921237165937e+02 1.187728209663115422e+02 2.548578232293063479e+02 2.637984595500129785e+02 2.559658249101048568e+02 2.152655656760196052e+02 8.414357288443434868e+01 1.485493010419272366e+02 2.387853069346839163e+02 2.313141755963531807e+02 1.646015151694226404e+02 5.851211470479643140e+01 8.099634751296196100e+01 2.131806958316336704e+02 2.561467505143879180e+02 2.421961441526309784e+02 1.046534135383518560e+02 1.317927651663618747e+02 2.402598954320496603e+02 2.182956390852129971e+02 2.568222366546277158e+02 1.648932343802113678e+02 1.773795398112845589e+02 2.219458546963462027e+02 2.196039553724657196e+02 8.291950045159920535e+01 1.713363299513851530e+02 1.229278114370184056e+02 2.509413413994734867e+02 2.176650804148245584e+02 2.576982040270372636e+02 1.873769760126458266e+02 2.692891172528105699e+02 1.452346642722187937e+02 7.024516837594605434e-01
3.924502135158463023e-01 1.316311853438706976e+02 1.430641575768991913e+02 7.857762288900394765e+01 1.425342262825922433e+02 1.423450189840441169e+02 5.588022156762985304e+01 1.407051942589144744e+02 1.156764429077619525e+02 1.155961494911860967e+02 1.427647845207638682e+02 1.333045700956882342e+02 3.484633143008763767e+01 1.406151195544223071e+02 1.394604787279194511e+02 2.634661728706399231e+01 1.313776474894117712e+02 1.378138993701343509e+02 1.429411044858874504e+02 1.167300114199362753e+02 1.438040281703586913e+02 1.344477901969786728e+02 4.230859937066782095e+01 1.390788871250169620e+02 9.966585247269179604e+01 1.147603801954546157e+02 1.366874469090563196e+02 6.169892788785173821e+01 1.409828383182766345e+02 1.436534819370721436e+02 1.336244662334126758e+02 3.458502376255271571e+01 1.338379843681108525e+02 1.144108821767589745e+02 9.813702271577655267e+01 1.125705657527267789e+02 8.253881831558231852e+01 1.432003780263090960e+02 1.319215471789539151e+02 5.456292518494320065e-01
7.918494814037873031e-01 2.370064973558277943e-01 3.411637567490706235e-01 2.062687671341987272e-01 3.785783117571592804e-01 7.349366724985569865e-01 7.144268938094974208e-01 1.820191786981433246e-01 4.769239620700707061e-01 6.882067666619974267e-01 7.381498945220424934e-01 6.360369718338630962e-01 1.948227121969219322e-01 8.680790554095264566e-01 2.884477741377469151e-01 3.699218030016973024e-01 5.584978019298978413e-01 8.593785049138901178e-01 6.496503120661529795e-01 7.016877044789130435e-01 2.163682796868916514e-01 3.525618241466543790e-01 1.368934180415587454e-01 7.369034163074874577e-01 9.487578065608835987e-01 7.348682614868746743e-01 1.246787160365281366e-01 6.933653523612215430e-01 4.332251911254281218e-01 9.211418199853638189e-02 9.994741732968478454e-01 7.241252907374010617e-01 6.224379692567222344e-01 8.730978733688250504e-01 3.253410944807404448e-01 6.668450903172160604e-01 4.682804324662004358e-01 1.239497677302180412e-01 5.410697137211636365e-01 6.319094877209670003e-01
